129 65
1.000	1.000	1.000	1.000	0.996	0.994	0.992	0.988	0.984	0.980	0.976	0.969	0.959	0.945	0.927	0.906	0.880	0.851	0.822	0.786	0.775	0.769	0.765	0.757	0.745	0.731	0.714	0.690	0.663	0.637	0.612	0.624	0.637	0.651	0.659	0.667	0.667	0.663	0.647	0.627	0.598	0.563	0.520	0.469	0.425	0.447	0.473	0.494	0.510	0.516	0.514	0.504	0.480	0.447	0.408	0.357	0.304	0.261	0.300	0.341	0.369	0.392	0.406	0.408	0.400	
1.000	1.000	1.000	0.998	0.996	0.996	0.992	0.988	0.988	0.984	0.980	0.973	0.964	0.950	0.933	0.912	0.884	0.857	0.825	0.791	0.782	0.780	0.775	0.770	0.760	0.744	0.727	0.706	0.686	0.661	0.631	0.645	0.660	0.673	0.683	0.691	0.695	0.689	0.679	0.659	0.629	0.593	0.547	0.497	0.452	0.481	0.509	0.531	0.548	0.557	0.555	0.545	0.520	0.488	0.443	0.395	0.335	0.300	0.342	0.380	0.413	0.436	0.453	0.457	0.451	
1.000	1.000	1.000	0.998	0.996	0.996	0.992	0.990	0.988	0.985	0.983	0.976	0.969	0.955	0.938	0.916	0.888	0.861	0.831	0.798	0.793	0.789	0.788	0.780	0.773	0.759	0.742	0.727	0.708	0.683	0.655	0.662	0.677	0.694	0.708	0.719	0.725	0.723	0.710	0.690	0.660	0.624	0.575	0.533	0.492	0.510	0.541	0.567	0.585	0.596	0.599	0.589	0.565	0.530	0.486	0.434	0.402	0.363	0.380	0.425	0.458	0.484	0.506	0.507	0.502	
1.000	1.000	1.000	0.999	0.996	0.996	0.992	0.992	0.988	0.988	0.984	0.979	0.971	0.957	0.939	0.919	0.892	0.863	0.831	0.813	0.800	0.799	0.796	0.789	0.781	0.770	0.761	0.746	0.728	0.704	0.674	0.675	0.694	0.711	0.727	0.740	0.745	0.746	0.734	0.715	0.685	0.645	0.609	0.577	0.535	0.537	0.569	0.595	0.617	0.631	0.632	0.624	0.598	0.563	0.520	0.494	0.464	0.421	0.411	0.455	0.496	0.525	0.544	0.548	0.545	
1.000	1.000	1.000	0.999	0.996	0.996	0.992	0.992	0.988	0.988	0.984	0.978	0.971	0.957	0.939	0.919	0.892	0.863	0.847	0.835	0.823	0.804	0.800	0.796	0.788	0.785	0.774	0.761	0.745	0.720	0.691	0.683	0.703	0.725	0.739	0.754	0.760	0.762	0.752	0.733	0.700	0.673	0.648	0.615	0.569	0.550	0.585	0.617	0.639	0.657	0.658	0.648	0.622	0.587	0.576	0.552	0.522	0.475	0.432	0.482	0.519	0.554	0.573	0.580	0.573	
1.000	1.000	1.000	0.998	0.996	0.996	0.992	0.991	0.988	0.984	0.981	0.976	0.969	0.954	0.937	0.916	0.888	0.876	0.870	0.859	0.845	0.827	0.806	0.797	0.796	0.794	0.784	0.773	0.756	0.730	0.701	0.687	0.707	0.727	0.747	0.759	0.768	0.770	0.759	0.737	0.720	0.704	0.679	0.644	0.599	0.558	0.594	0.624	0.648	0.664	0.667	0.658	0.636	0.640	0.630	0.608	0.572	0.525	0.463	0.491	0.533	0.567	0.589	0.594	0.588	
1.000	1.000	1.000	0.998	0.996	0.995	0.992	0.988	0.988	0.984	0.980	0.973	0.964	0.951	0.933	0.909	0.899	0.894	0.890	0.883	0.871	0.853	0.831	0.807	0.804	0.801	0.793	0.779	0.762	0.740	0.709	0.686	0.705	0.725	0.743	0.757	0.765	0.766	0.756	0.746	0.744	0.729	0.706	0.666	0.621	0.568	0.591	0.622	0.647	0.663	0.663	0.656	0.674	0.683	0.673	0.648	0.611	0.560	0.497	0.491	0.533	0.568	0.589	0.591	0.584	
1.000	1.000	1.000	0.997	0.996	0.992	0.992	0.988	0.984	0.980	0.976	0.969	0.958	0.943	0.925	0.918	0.916	0.912	0.912	0.905	0.893	0.877	0.856	0.827	0.804	0.801	0.795	0.783	0.764	0.742	0.709	0.678	0.695	0.715	0.731	0.747	0.753	0.752	0.753	0.761	0.759	0.743	0.720	0.682	0.634	0.580	0.580	0.609	0.632	0.646	0.651	0.683	0.703	0.713	0.704	0.677	0.639	0.586	0.526	0.477	0.518	0.549	0.568	0.574	0.567	
1.000	1.000	1.000	0.997	0.996	0.992	0.990	0.987	0.982	0.977	0.971	0.963	0.950	0.936	0.929	0.929	0.930	0.932	0.931	0.927	0.917	0.900	0.877	0.850	0.818	0.798	0.791	0.777	0.761	0.739	0.708	0.673	0.683	0.700	0.715	0.726	0.730	0.740	0.756	0.763	0.764	0.748	0.720	0.685	0.636	0.584	0.558	0.587	0.606	0.621	0.660	0.695	0.719	0.728	0.720	0.693	0.652	0.599	0.534	0.464	0.488	0.518	0.537	0.541	0.535	
1.000	1.000	1.000	0.997	0.996	0.992	0.988	0.984	0.980	0.974	0.965	0.956	0.943	0.938	0.937	0.940	0.945	0.949	0.953	0.950	0.939	0.922	0.898	0.867	0.834	0.796	0.783	0.770	0.750	0.726	0.700	0.663	0.664	0.679	0.692	0.700	0.713	0.735	0.749	0.756	0.753	0.739	0.713	0.675	0.631	0.577	0.528	0.553	0.573	0.615	0.658	0.694	0.718	0.725	0.717	0.690	0.650	0.598	0.532	0.463	0.451	0.479	0.496	0.499	0.541	
1.000	1.000	1.000	0.997	0.996	0.992	0.988	0.984	0.976	0.969	0.960	0.950	0.943	0.942	0.945	0.949	0.957	0.966	0.973	0.972	0.960	0.939	0.914	0.882	0.847	0.806	0.771	0.758	0.738	0.715	0.687	0.651	0.642	0.654	0.663	0.679	0.698	0.717	0.731	0.737	0.731	0.721	0.694	0.659	0.613	0.560	0.502	0.517	0.559	0.602	0.644	0.675	0.698	0.705	0.698	0.674	0.632	0.582	0.520	0.448	0.404	0.429	0.443	0.503	0.573	
1.000	1.000	1.000	0.997	0.996	0.992	0.986	0.980	0.973	0.965	0.955	0.949	0.945	0.945	0.949	0.956	0.966	0.979	0.991	0.991	0.976	0.953	0.925	0.892	0.856	0.815	0.772	0.740	0.723	0.698	0.668	0.631	0.616	0.625	0.638	0.660	0.679	0.695	0.707	0.709	0.707	0.691	0.668	0.632	0.590	0.535	0.478	0.495	0.539	0.580	0.618	0.647	0.665	0.671	0.662	0.639	0.601	0.552	0.492	0.424	0.353	0.371	0.432	0.516	0.586	
1.000	1.000	1.000	0.998	0.996	0.991	0.984	0.979	0.971	0.961	0.953	0.949	0.945	0.945	0.949	0.957	0.970	0.984	1.000	1.000	0.984	0.959	0.927	0.896	0.857	0.818	0.774	0.726	0.701	0.676	0.646	0.611	0.586	0.598	0.618	0.636	0.653	0.666	0.675	0.676	0.670	0.657	0.631	0.596	0.555	0.506	0.450	0.469	0.508	0.547	0.579	0.605	0.621	0.625	0.617	0.595	0.558	0.512	0.455	0.389	0.321	0.355	0.432	0.516	0.586	
1.000	1.000	1.000	0.998	0.996	0.991	0.984	0.976	0.969	0.961	0.953	0.949	0.945	0.945	0.949	0.957	0.967	0.979	0.992	0.992	0.978	0.954	0.925	0.892	0.855	0.816	0.771	0.725	0.675	0.653	0.623	0.585	0.561	0.574	0.589	0.608	0.620	0.630	0.636	0.636	0.629	0.614	0.591	0.557	0.517	0.467	0.414	0.435	0.473	0.506	0.535	0.555	0.571	0.571	0.560	0.539	0.506	0.462	0.409	0.347	0.280	0.341	0.421	0.503	0.569	
1.000	1.000	1.000	0.999	0.996	0.992	0.984	0.979	0.971	0.962	0.952	0.946	0.942	0.942	0.945	0.949	0.958	0.968	0.975	0.975	0.961	0.940	0.915	0.883	0.847	0.808	0.766	0.718	0.677	0.654	0.624	0.590	0.569	0.559	0.564	0.575	0.586	0.594	0.597	0.594	0.583	0.569	0.543	0.510	0.472	0.425	0.374	0.397	0.429	0.458	0.481	0.499	0.511	0.514	0.502	0.481	0.448	0.407	0.354	0.296	0.245	0.322	0.399	0.476	0.535	
1.000	1.000	1.000	0.999	0.996	0.992	0.984	0.979	0.973	0.963	0.953	0.945	0.940	0.937	0.937	0.941	0.945	0.951	0.955	0.951	0.941	0.922	0.898	0.869	0.835	0.797	0.755	0.717	0.700	0.675	0.648	0.617	0.577	0.566	0.558	0.543	0.545	0.551	0.553	0.548	0.536	0.518	0.496	0.466	0.425	0.378	0.377	0.410	0.437	0.461	0.481	0.492	0.492	0.484	0.466	0.437	0.400	0.353	0.301	0.255	0.299	0.337	0.373	0.435	0.496	
1.000	1.000	1.000	0.998	0.996	0.992	0.987	0.980	0.973	0.965	0.955	0.943	0.935	0.933	0.929	0.929	0.931	0.933	0.934	0.927	0.918	0.902	0.878	0.851	0.819	0.781	0.749	0.737	0.717	0.695	0.668	0.633	0.597	0.566	0.557	0.542	0.523	0.507	0.506	0.499	0.486	0.470	0.444	0.413	0.375	0.380	0.415	0.450	0.479	0.507	0.528	0.544	0.546	0.540	0.522	0.491	0.452	0.405	0.346	0.294	0.344	0.388	0.420	0.448	0.463	
1.000	1.000	1.000	0.998	0.996	0.992	0.988	0.984	0.975	0.965	0.957	0.945	0.930	0.925	0.921	0.918	0.916	0.916	0.912	0.907	0.896	0.879	0.856	0.830	0.798	0.773	0.764	0.753	0.734	0.712	0.684	0.650	0.612	0.569	0.553	0.536	0.519	0.492	0.462	0.451	0.434	0.414	0.390	0.359	0.367	0.403	0.445	0.481	0.517	0.545	0.570	0.587	0.593	0.588	0.570	0.539	0.498	0.447	0.385	0.331	0.381	0.429	0.465	0.499	0.512	
1.000	1.000	1.000	1.000	0.996	0.992	0.990	0.984	0.978	0.969	0.956	0.944	0.929	0.917	0.912	0.905	0.900	0.896	0.891	0.884	0.872	0.855	0.835	0.809	0.784	0.782	0.775	0.763	0.747	0.725	0.698	0.662	0.625	0.582	0.570	0.549	0.529	0.497	0.464	0.425	0.382	0.362	0.335	0.347	0.386	0.425	0.468	0.507	0.545	0.576	0.604	0.625	0.633	0.628	0.608	0.577	0.533	0.479	0.418	0.357	0.415	0.459	0.502	0.533	0.551	
1.000	1.000	1.000	1.000	0.996	0.996	0.992	0.988	0.980	0.974	0.961	0.947	0.929	0.912	0.899	0.890	0.883	0.875	0.871	0.862	0.848	0.829	0.808	0.789	0.792	0.787	0.782	0.771	0.752	0.731	0.703	0.670	0.631	0.628	0.616	0.597	0.577	0.549	0.515	0.474	0.429	0.375	0.322	0.358	0.399	0.439	0.484	0.525	0.566	0.600	0.631	0.652	0.663	0.658	0.635	0.604	0.559	0.502	0.438	0.376	0.429	0.479	0.525	0.558	0.578	
1.000	1.000	1.000	1.000	0.996	0.996	0.992	0.989	0.984	0.976	0.967	0.953	0.933	0.910	0.895	0.880	0.867	0.857	0.849	0.837	0.824	0.806	0.791	0.791	0.795	0.788	0.783	0.773	0.754	0.734	0.705	0.674	0.675	0.671	0.662	0.648	0.626	0.600	0.563	0.522	0.475	0.421	0.364	0.364	0.404	0.446	0.490	0.534	0.575	0.613	0.644	0.663	0.675	0.672	0.652	0.619	0.571	0.514	0.448	0.406	0.437	0.488	0.535	0.568	0.588	
1.000	1.000	1.000	1.000	0.999	0.996	0.996	0.992	0.988	0.980	0.972	0.957	0.939	0.919	0.894	0.880	0.863	0.845	0.829	0.825	0.821	0.814	0.805	0.792	0.792	0.787	0.782	0.770	0.753	0.729	0.703	0.712	0.718	0.717	0.709	0.696	0.675	0.648	0.611	0.567	0.519	0.465	0.405	0.362	0.405	0.447	0.489	0.534	0.574	0.612	0.644	0.665	0.675	0.670	0.654	0.620	0.571	0.512	0.481	0.490	0.488	0.483	0.529	0.565	0.584	
1.000	1.000	1.000	1.000	1.000	0.996	0.996	0.996	0.992	0.984	0.975	0.962	0.946	0.927	0.904	0.880	0.862	0.846	0.846	0.845	0.844	0.840	0.831	0.821	0.804	0.784	0.773	0.760	0.745	0.725	0.737	0.749	0.758	0.760	0.756	0.744	0.723	0.693	0.657	0.611	0.562	0.503	0.439	0.374	0.398	0.439	0.483	0.524	0.564	0.599	0.629	0.649	0.662	0.655	0.634	0.603	0.559	0.535	0.559	0.571	0.570	0.552	0.519	0.542	0.561	
1.000	1.000	1.000	1.000	1.000	1.000	1.000	0.996	0.992	0.987	0.977	0.967	0.953	0.935	0.912	0.885	0.862	0.860	0.862	0.865	0.865	0.863	0.856	0.846	0.830	0.809	0.781	0.751	0.734	0.752	0.771	0.784	0.797	0.802	0.801	0.791	0.770	0.738	0.699	0.651	0.598	0.539	0.475	0.405	0.385	0.425	0.467	0.504	0.543	0.576	0.604	0.624	0.629	0.625	0.607	0.573	0.567	0.605	0.635	0.651	0.648	0.628	0.595	0.548	0.527	
1.000	1.000	1.000	1.000	1.000	1.000	1.000	1.000	0.996	0.988	0.981	0.973	0.959	0.940	0.920	0.892	0.872	0.873	0.877	0.880	0.884	0.884	0.880	0.870	0.856	0.834	0.808	0.774	0.753	0.775	0.798	0.816	0.833	0.843	0.842	0.835	0.814	0.779	0.738	0.686	0.631	0.571	0.502	0.430	0.368	0.406	0.443	0.478	0.514	0.546	0.570	0.586	0.592	0.586	0.568	0.572	0.625	0.671	0.706	0.726	0.727	0.706	0.668	0.615	0.563	
1.000	1.000	1.000	1.000	1.000	1.000	1.000	1.000	0.996	0.992	0.987	0.976	0.963	0.945	0.924	0.897	0.881	0.884	0.890	0.897	0.903	0.905	0.903	0.893	0.879	0.857	0.829	0.795	0.771	0.794	0.819	0.843	0.866	0.881	0.885	0.875	0.851	0.814	0.770	0.716	0.657	0.591	0.525	0.452	0.389	0.413	0.435	0.453	0.476	0.506	0.525	0.538	0.543	0.535	0.550	0.611	0.672	0.726	0.771	0.797	0.800	0.774	0.729	0.672	0.612	
1.000	1.000	1.000	1.000	1.000	1.000	1.000	0.999	0.996	0.996	0.988	0.980	0.967	0.947	0.926	0.899	0.888	0.893	0.901	0.910	0.918	0.923	0.924	0.916	0.898	0.876	0.846	0.811	0.782	0.808	0.835	0.865	0.890	0.912	0.919	0.910	0.882	0.842	0.792	0.737	0.677	0.611	0.540	0.466	0.427	0.453	0.479	0.500	0.515	0.521	0.520	0.507	0.491	0.512	0.576	0.644	0.711	0.769	0.824	0.859	0.862	0.831	0.778	0.709	0.647	
1.000	1.000	1.000	1.000	1.000	1.000	0.996	1.000	1.000	0.996	0.990	0.980	0.967	0.949	0.927	0.900	0.894	0.900	0.909	0.920	0.930	0.936	0.937	0.930	0.914	0.890	0.859	0.823	0.790	0.818	0.847	0.876	0.908	0.932	0.940	0.930	0.900	0.858	0.806	0.749	0.686	0.620	0.549	0.498	0.470	0.487	0.516	0.540	0.559	0.568	0.567	0.556	0.537	0.523	0.590	0.661	0.729	0.797	0.855	0.891	0.901	0.869	0.809	0.733	0.669	
1.000	1.000	1.000	1.000	1.000	0.996	0.996	0.996	0.996	0.996	0.988	0.979	0.967	0.947	0.926	0.897	0.895	0.902	0.913	0.925	0.935	0.943	0.946	0.940	0.922	0.896	0.865	0.828	0.790	0.818	0.847	0.877	0.908	0.932	0.942	0.933	0.902	0.858	0.809	0.750	0.687	0.622	0.573	0.555	0.527	0.516	0.548	0.575	0.595	0.607	0.605	0.598	0.574	0.541	0.591	0.662	0.729	0.799	0.856	0.894	0.902	0.870	0.810	0.733	0.671	
1.000	1.000	1.000	1.000	0.998	0.996	0.996	0.996	0.996	0.992	0.984	0.976	0.963	0.944	0.923	0.894	0.894	0.902	0.912	0.924	0.935	0.942	0.945	0.938	0.921	0.896	0.865	0.827	0.788	0.812	0.837	0.868	0.896	0.917	0.925	0.914	0.887	0.845	0.796	0.739	0.678	0.638	0.629	0.611	0.582	0.544	0.571	0.598	0.624	0.637	0.637	0.629	0.605	0.569	0.579	0.645	0.714	0.775	0.829	0.862	0.864	0.834	0.784	0.716	0.651	
1.000	1.000	1.000	1.000	0.996	0.996	0.996	0.993	0.992	0.988	0.980	0.972	0.959	0.939	0.918	0.897	0.894	0.899	0.908	0.918	0.928	0.934	0.935	0.928	0.913	0.888	0.856	0.822	0.779	0.798	0.823	0.848	0.872	0.887	0.892	0.882	0.859	0.821	0.775	0.721	0.689	0.691	0.683	0.663	0.635	0.595	0.585	0.615	0.640	0.655	0.659	0.649	0.624	0.589	0.554	0.616	0.678	0.731	0.775	0.803	0.807	0.779	0.736	0.675	0.616	
1.000	1.000	1.000	1.000	0.996	0.996	0.992	0.992	0.988	0.984	0.976	0.966	0.951	0.932	0.918	0.913	0.905	0.900	0.901	0.909	0.915	0.920	0.920	0.912	0.895	0.873	0.843	0.808	0.768	0.779	0.802	0.823	0.839	0.851	0.852	0.843	0.821	0.784	0.742	0.723	0.734	0.740	0.733	0.713	0.681	0.643	0.593	0.621	0.644	0.663	0.663	0.653	0.633	0.595	0.549	0.575	0.631	0.677	0.712	0.732	0.731	0.715	0.673	0.618	0.565	
1.000	1.000	1.000	1.000	0.998	0.996	0.992	0.988	0.984	0.979	0.972	0.960	0.945	0.931	0.927	0.925	0.921	0.918	0.913	0.902	0.899	0.901	0.897	0.889	0.875	0.852	0.824	0.789	0.751	0.757	0.775	0.789	0.802	0.811	0.809	0.800	0.777	0.745	0.735	0.762	0.776	0.782	0.776	0.758	0.727	0.680	0.628	0.616	0.637	0.656	0.656	0.649	0.624	0.591	0.543	0.526	0.575	0.612	0.641	0.658	0.658	0.639	0.606	0.555	0.510	
1.000	1.000	1.000	1.000	0.999	0.996	0.993	0.988	0.980	0.974	0.965	0.953	0.941	0.939	0.938	0.938	0.938	0.936	0.932	0.924	0.909	0.887	0.874	0.865	0.851	0.829	0.802	0.769	0.731	0.730	0.744	0.756	0.763	0.769	0.763	0.753	0.731	0.727	0.762	0.789	0.810	0.818	0.813	0.792	0.758	0.711	0.656	0.599	0.621	0.634	0.636	0.626	0.604	0.568	0.527	0.558	0.583	0.601	0.599	0.589	0.574	0.561	0.528	0.485	0.492	
1.000	1.000	1.000	1.000	1.000	0.996	0.994	0.988	0.981	0.973	0.961	0.949	0.945	0.945	0.946	0.948	0.953	0.954	0.953	0.942	0.927	0.904	0.877	0.846	0.825	0.805	0.776	0.745	0.707	0.711	0.721	0.730	0.735	0.735	0.728	0.714	0.709	0.744	0.776	0.808	0.830	0.844	0.839	0.817	0.780	0.730	0.675	0.606	0.591	0.603	0.606	0.596	0.573	0.539	0.584	0.628	0.664	0.681	0.686	0.672	0.642	0.594	0.536	0.483	0.541	
1.000	1.000	1.000	1.000	1.000	0.996	0.994	0.988	0.982	0.974	0.966	0.955	0.949	0.949	0.953	0.959	0.965	0.971	0.970	0.960	0.943	0.920	0.890	0.858	0.832	0.808	0.776	0.740	0.725	0.740	0.755	0.768	0.775	0.778	0.775	0.761	0.737	0.747	0.782	0.814	0.838	0.849	0.844	0.825	0.786	0.735	0.678	0.612	0.553	0.566	0.563	0.554	0.533	0.588	0.643	0.694	0.737	0.764	0.771	0.756	0.720	0.667	0.600	0.527	0.575	
1.000	1.000	1.000	1.000	1.000	0.996	0.992	0.988	0.984	0.979	0.972	0.963	0.953	0.954	0.957	0.965	0.973	0.981	0.982	0.972	0.952	0.927	0.896	0.876	0.859	0.831	0.800	0.763	0.747	0.769	0.784	0.803	0.815	0.822	0.819	0.807	0.784	0.751	0.777	0.808	0.830	0.840	0.836	0.815	0.780	0.729	0.671	0.605	0.535	0.519	0.516	0.507	0.568	0.630	0.692	0.750	0.805	0.843	0.854	0.837	0.792	0.731	0.654	0.576	0.596	
1.000	1.000	1.000	1.000	0.998	0.996	0.992	0.990	0.987	0.983	0.976	0.969	0.956	0.954	0.958	0.965	0.976	0.984	0.985	0.975	0.955	0.928	0.916	0.902	0.880	0.855	0.821	0.781	0.768	0.788	0.812	0.834	0.850	0.861	0.863	0.851	0.825	0.793	0.760	0.788	0.807	0.818	0.813	0.789	0.756	0.710	0.655	0.589	0.522	0.467	0.464	0.525	0.594	0.661	0.729	0.800	0.867	0.919	0.939	0.913	0.854	0.779	0.695	0.611	0.604	
1.000	1.000	1.000	1.000	0.997	0.996	0.992	0.992	0.988	0.985	0.980	0.974	0.963	0.953	0.956	0.963	0.971	0.976	0.976	0.968	0.949	0.943	0.938	0.923	0.901	0.872	0.837	0.798	0.782	0.808	0.833	0.859	0.882	0.898	0.903	0.891	0.863	0.823	0.775	0.758	0.773	0.781	0.775	0.756	0.722	0.678	0.625	0.567	0.501	0.425	0.470	0.538	0.606	0.678	0.754	0.829	0.906	0.979	0.998	0.973	0.895	0.810	0.720	0.629	0.590	
1.000	1.000	1.000	1.000	0.996	0.996	0.996	0.992	0.992	0.988	0.984	0.977	0.968	0.952	0.950	0.954	0.960	0.964	0.963	0.952	0.956	0.962	0.957	0.940	0.916	0.884	0.850	0.809	0.791	0.819	0.849	0.878	0.906	0.928	0.935	0.922	0.889	0.847	0.795	0.737	0.733	0.736	0.729	0.710	0.680	0.639	0.590	0.530	0.467	0.411	0.474	0.538	0.610	0.680	0.757	0.833	0.913	0.989	1.000	0.985	0.901	0.813	0.724	0.632	0.565	
1.000	1.000	1.000	1.000	0.996	0.996	0.996	0.994	0.992	0.992	0.988	0.981	0.971	0.955	0.942	0.945	0.947	0.947	0.944	0.952	0.965	0.973	0.965	0.948	0.924	0.892	0.853	0.813	0.797	0.825	0.857	0.888	0.918	0.942	0.953	0.938	0.904	0.858	0.803	0.745	0.688	0.687	0.677	0.660	0.631	0.592	0.546	0.490	0.429	0.402	0.465	0.530	0.597	0.669	0.737	0.812	0.880	0.937	0.963	0.933	0.870	0.789	0.706	0.618	0.545	
1.000	1.000	1.000	1.000	0.996	0.996	0.996	0.996	0.992	0.992	0.988	0.982	0.973	0.957	0.935	0.931	0.930	0.928	0.937	0.951	0.963	0.969	0.965	0.947	0.922	0.891	0.853	0.812	0.796	0.823	0.853	0.884	0.913	0.938	0.947	0.930	0.898	0.854	0.801	0.743	0.677	0.635	0.627	0.607	0.579	0.540	0.498	0.443	0.385	0.387	0.450	0.510	0.575	0.639	0.706	0.768	0.825	0.865	0.879	0.861	0.813	0.747	0.669	0.586	0.518	
1.000	1.000	1.000	1.000	0.996	0.996	0.996	0.993	0.992	0.992	0.988	0.980	0.971	0.956	0.936	0.919	0.915	0.920	0.930	0.942	0.952	0.957	0.952	0.936	0.913	0.882	0.847	0.806	0.786	0.815	0.843	0.870	0.894	0.916	0.921	0.907	0.877	0.835	0.785	0.729	0.669	0.600	0.572	0.552	0.525	0.486	0.445	0.392	0.380	0.366	0.424	0.481	0.542	0.598	0.658	0.713	0.756	0.785	0.793	0.779	0.739	0.684	0.619	0.543	0.478	
1.000	1.000	1.000	1.000	0.996	0.996	0.995	0.992	0.992	0.988	0.984	0.977	0.967	0.950	0.931	0.908	0.906	0.912	0.922	0.929	0.936	0.937	0.931	0.918	0.895	0.866	0.833	0.793	0.774	0.797	0.824	0.847	0.867	0.881	0.880	0.872	0.845	0.809	0.761	0.707	0.647	0.583	0.516	0.494	0.466	0.432	0.388	0.379	0.368	0.353	0.391	0.445	0.499	0.552	0.604	0.646	0.682	0.705	0.710	0.694	0.664	0.616	0.557	0.487	0.451	
1.000	1.000	1.000	1.000	0.996	0.996	0.992	0.992	0.988	0.985	0.980	0.973	0.961	0.946	0.927	0.901	0.895	0.900	0.908	0.913	0.916	0.916	0.908	0.895	0.875	0.847	0.814	0.787	0.794	0.796	0.800	0.819	0.833	0.841	0.840	0.829	0.804	0.772	0.728	0.677	0.621	0.559	0.494	0.435	0.407	0.374	0.368	0.365	0.355	0.337	0.353	0.403	0.450	0.496	0.540	0.576	0.605	0.622	0.624	0.611	0.583	0.542	0.486	0.466	0.463	
1.000	1.000	1.000	1.000	0.999	0.996	0.992	0.988	0.987	0.981	0.976	0.966	0.955	0.939	0.919	0.895	0.885	0.886	0.892	0.894	0.895	0.892	0.884	0.871	0.851	0.824	0.803	0.815	0.825	0.833	0.836	0.829	0.813	0.801	0.798	0.783	0.762	0.729	0.689	0.642	0.589	0.527	0.463	0.396	0.347	0.343	0.348	0.345	0.333	0.319	0.307	0.351	0.395	0.436	0.473	0.504	0.526	0.538	0.539	0.526	0.501	0.461	0.450	0.461	0.459	
1.000	1.000	1.000	1.000	1.000	0.996	0.993	0.988	0.984	0.978	0.971	0.962	0.948	0.931	0.911	0.884	0.874	0.873	0.875	0.875	0.873	0.867	0.857	0.843	0.824	0.806	0.825	0.842	0.857	0.868	0.875	0.870	0.854	0.827	0.791	0.748	0.715	0.683	0.647	0.601	0.549	0.494	0.428	0.363	0.315	0.322	0.321	0.319	0.304	0.285	0.266	0.298	0.337	0.373	0.404	0.429	0.448	0.457	0.456	0.443	0.417	0.419	0.434	0.444	0.441	
1.000	1.000	1.000	1.000	1.000	0.996	0.995	0.988	0.982	0.974	0.965	0.955	0.939	0.923	0.900	0.875	0.862	0.857	0.856	0.854	0.850	0.844	0.832	0.817	0.804	0.822	0.844	0.865	0.884	0.902	0.911	0.908	0.892	0.863	0.822	0.775	0.724	0.669	0.605	0.557	0.507	0.453	0.392	0.325	0.289	0.294	0.291	0.284	0.273	0.256	0.230	0.242	0.275	0.307	0.331	0.353	0.367	0.373	0.369	0.355	0.364	0.391	0.408	0.416	0.414	
1.000	1.000	1.000	1.000	1.000	0.996	0.995	0.988	0.982	0.973	0.960	0.946	0.930	0.912	0.892	0.864	0.847	0.840	0.838	0.833	0.825	0.817	0.806	0.796	0.814	0.834	0.857	0.883	0.907	0.929	0.944	0.942	0.925	0.891	0.846	0.796	0.742	0.683	0.621	0.552	0.483	0.413	0.351	0.287	0.268	0.254	0.255	0.247	0.235	0.216	0.192	0.181	0.211	0.236	0.257	0.275	0.285	0.291	0.284	0.296	0.330	0.357	0.371	0.376	0.375	
1.000	1.000	1.000	1.000	1.000	0.996	0.994	0.988	0.982	0.973	0.959	0.939	0.924	0.903	0.879	0.851	0.831	0.824	0.817	0.811	0.802	0.791	0.783	0.800	0.818	0.840	0.865	0.893	0.922	0.947	0.969	0.969	0.944	0.907	0.862	0.808	0.753	0.693	0.628	0.559	0.488	0.414	0.350	0.319	0.280	0.273	0.261	0.246	0.224	0.201	0.169	0.153	0.142	0.165	0.183	0.196	0.203	0.205	0.225	0.258	0.288	0.312	0.325	0.329	0.325	
1.000	1.000	1.000	1.000	0.999	0.996	0.992	0.988	0.980	0.971	0.956	0.938	0.917	0.892	0.867	0.840	0.819	0.806	0.798	0.791	0.780	0.770	0.785	0.800	0.820	0.841	0.865	0.893	0.924	0.951	0.973	0.972	0.947	0.909	0.862	0.809	0.753	0.694	0.629	0.562	0.488	0.429	0.406	0.374	0.333	0.291	0.284	0.268	0.248	0.225	0.189	0.151	0.137	0.123	0.113	0.120	0.123	0.145	0.180	0.213	0.237	0.260	0.273	0.275	0.273	
1.000	1.000	1.000	1.000	0.997	0.996	0.992	0.988	0.980	0.970	0.955	0.937	0.912	0.893	0.874	0.853	0.827	0.805	0.781	0.766	0.761	0.770	0.782	0.797	0.815	0.836	0.861	0.886	0.911	0.936	0.951	0.950	0.929	0.895	0.852	0.801	0.748	0.688	0.621	0.555	0.502	0.481	0.458	0.425	0.386	0.339	0.301	0.285	0.268	0.239	0.208	0.168	0.136	0.122	0.107	0.098	0.092	0.096	0.132	0.161	0.186	0.200	0.214	0.216	0.235	
1.000	1.000	1.000	1.000	0.996	0.996	0.992	0.985	0.977	0.968	0.952	0.933	0.917	0.900	0.883	0.863	0.841	0.819	0.796	0.772	0.755	0.766	0.775	0.790	0.808	0.826	0.847	0.869	0.891	0.911	0.921	0.918	0.901	0.871	0.830	0.783	0.728	0.671	0.609	0.561	0.553	0.534	0.509	0.475	0.435	0.390	0.335	0.296	0.273	0.249	0.215	0.177	0.138	0.123	0.110	0.093	0.083	0.075	0.078	0.101	0.124	0.139	0.173	0.202	0.255	
1.000	1.000	1.000	1.000	0.996	0.995	0.991	0.984	0.976	0.965	0.949	0.935	0.923	0.908	0.891	0.873	0.852	0.830	0.809	0.783	0.753	0.757	0.766	0.779	0.795	0.813	0.831	0.847	0.865	0.879	0.883	0.879	0.865	0.837	0.800	0.758	0.706	0.648	0.608	0.607	0.598	0.580	0.555	0.524	0.481	0.435	0.379	0.319	0.277	0.252	0.220	0.178	0.170	0.166	0.156	0.140	0.113	0.079	0.081	0.118	0.155	0.201	0.240	0.277	0.300	
1.000	1.000	1.000	1.000	0.996	0.992	0.988	0.982	0.974	0.962	0.949	0.939	0.927	0.915	0.898	0.882	0.861	0.838	0.818	0.792	0.765	0.745	0.755	0.766	0.778	0.793	0.808	0.824	0.834	0.845	0.846	0.840	0.825	0.799	0.765	0.725	0.676	0.643	0.649	0.647	0.639	0.624	0.598	0.564	0.522	0.475	0.418	0.358	0.287	0.251	0.217	0.214	0.217	0.213	0.204	0.183	0.163	0.128	0.117	0.162	0.213	0.263	0.309	0.348	0.375	
1.000	1.000	1.000	0.999	0.996	0.992	0.988	0.980	0.973	0.962	0.952	0.942	0.930	0.918	0.905	0.887	0.870	0.848	0.826	0.802	0.773	0.745	0.749	0.754	0.762	0.772	0.783	0.794	0.802	0.806	0.806	0.798	0.782	0.757	0.726	0.687	0.662	0.675	0.684	0.685	0.678	0.665	0.635	0.603	0.560	0.509	0.451	0.387	0.319	0.245	0.240	0.252	0.258	0.253	0.245	0.228	0.204	0.174	0.150	0.209	0.265	0.319	0.372	0.416	0.447	
1.000	1.000	1.000	1.000	0.996	0.992	0.988	0.984	0.976	0.966	0.955	0.946	0.935	0.923	0.910	0.895	0.875	0.855	0.832	0.809	0.780	0.757	0.764	0.773	0.783	0.791	0.798	0.806	0.808	0.802	0.794	0.776	0.752	0.720	0.686	0.668	0.688	0.702	0.712	0.717	0.711	0.697	0.671	0.634	0.589	0.538	0.476	0.415	0.343	0.269	0.276	0.288	0.292	0.291	0.282	0.263	0.241	0.207	0.189	0.252	0.312	0.370	0.424	0.476	0.510	
1.000	1.000	1.000	1.000	0.996	0.994	0.992	0.986	0.980	0.972	0.960	0.947	0.937	0.926	0.914	0.898	0.879	0.859	0.840	0.814	0.784	0.772	0.778	0.789	0.801	0.814	0.825	0.834	0.838	0.837	0.828	0.812	0.785	0.753	0.712	0.685	0.705	0.723	0.736	0.740	0.736	0.721	0.693	0.658	0.612	0.557	0.499	0.431	0.361	0.289	0.302	0.315	0.321	0.322	0.316	0.297	0.274	0.239	0.220	0.282	0.350	0.414	0.474	0.524	0.567	
1.000	1.000	1.000	1.000	0.996	0.996	0.992	0.988	0.983	0.975	0.965	0.950	0.938	0.927	0.916	0.900	0.882	0.861	0.841	0.817	0.789	0.780	0.791	0.804	0.818	0.832	0.846	0.860	0.869	0.870	0.863	0.843	0.816	0.782	0.739	0.693	0.715	0.736	0.749	0.757	0.749	0.737	0.711	0.672	0.625	0.569	0.510	0.444	0.370	0.300	0.319	0.333	0.344	0.341	0.334	0.318	0.294	0.260	0.244	0.317	0.377	0.446	0.511	0.566	0.614	
1.000	1.000	1.000	1.000	0.996	0.996	0.995	0.992	0.987	0.979	0.969	0.955	0.939	0.926	0.915	0.898	0.881	0.861	0.840	0.814	0.804	0.795	0.801	0.816	0.832	0.848	0.866	0.881	0.894	0.896	0.890	0.871	0.843	0.805	0.759	0.708	0.718	0.737	0.751	0.760	0.756	0.740	0.712	0.674	0.629	0.575	0.511	0.443	0.373	0.316	0.332	0.349	0.355	0.355	0.348	0.332	0.310	0.275	0.261	0.331	0.400	0.469	0.534	0.597	0.645	
1.000	1.000	1.000	1.000	1.000	0.996	0.996	0.992	0.988	0.983	0.973	0.961	0.943	0.925	0.912	0.897	0.877	0.858	0.837	0.829	0.825	0.819	0.811	0.822	0.840	0.860	0.877	0.896	0.912	0.918	0.911	0.891	0.860	0.822	0.775	0.723	0.713	0.734	0.747	0.754	0.748	0.733	0.707	0.669	0.621	0.568	0.506	0.441	0.368	0.319	0.338	0.354	0.361	0.362	0.353	0.339	0.315	0.283	0.270	0.338	0.407	0.479	0.542	0.612	0.659	
1.000	1.000	1.000	1.000	1.000	0.999	0.996	0.996	0.992	0.986	0.977	0.965	0.947	0.925	0.910	0.892	0.873	0.853	0.846	0.848	0.845	0.842	0.836	0.827	0.843	0.863	0.883	0.904	0.920	0.926	0.920	0.900	0.869	0.829	0.779	0.727	0.699	0.719	0.730	0.736	0.730	0.718	0.689	0.651	0.608	0.552	0.493	0.428	0.357	0.318	0.335	0.348	0.358	0.358	0.351	0.335	0.308	0.279	0.299	0.336	0.408	0.475	0.544	0.607	0.655	
1.000	1.000	1.000	1.000	1.000	1.000	1.000	0.997	0.995	0.988	0.980	0.967	0.951	0.927	0.908	0.887	0.866	0.860	0.863	0.866	0.865	0.865	0.861	0.851	0.842	0.861	0.881	0.901	0.915	0.923	0.918	0.895	0.866	0.825	0.777	0.725	0.680	0.697	0.706	0.709	0.705	0.687	0.663	0.628	0.582	0.531	0.472	0.408	0.337	0.306	0.325	0.338	0.345	0.346	0.338	0.325	0.298	0.332	0.367	0.393	0.414	0.460	0.529	0.588	0.633	
1.000	1.000	1.000	1.000	1.000	1.000	1.000	1.000	0.996	0.990	0.980	0.969	0.951	0.936	0.917	0.896	0.871	0.873	0.875	0.881	0.884	0.885	0.883	0.876	0.863	0.851	0.870	0.889	0.900	0.904	0.899	0.879	0.851	0.813	0.766	0.716	0.661	0.668	0.675	0.676	0.671	0.652	0.629	0.593	0.551	0.501	0.443	0.382	0.313	0.288	0.307	0.321	0.325	0.326	0.319	0.301	0.341	0.388	0.425	0.458	0.480	0.492	0.500	0.554	0.596	
1.000	1.000	1.000	1.000	1.000	1.000	1.000	1.000	0.996	0.990	0.980	0.969	0.957	0.944	0.925	0.905	0.878	0.881	0.889	0.895	0.900	0.905	0.905	0.898	0.885	0.863	0.855	0.868	0.878	0.880	0.872	0.856	0.827	0.790	0.746	0.696	0.643	0.633	0.637	0.638	0.628	0.614	0.587	0.553	0.514	0.463	0.409	0.349	0.287	0.269	0.281	0.293	0.299	0.300	0.289	0.340	0.391	0.434	0.480	0.517	0.541	0.558	0.559	0.544	0.549	
1.000	1.000	1.000	1.000	1.000	1.000	1.000	0.997	0.995	0.988	0.980	0.973	0.963	0.949	0.932	0.912	0.885	0.889	0.898	0.906	0.914	0.922	0.923	0.917	0.903	0.880	0.853	0.843	0.849	0.849	0.839	0.824	0.797	0.764	0.724	0.675	0.657	0.654	0.646	0.629	0.602	0.575	0.541	0.511	0.472	0.422	0.370	0.315	0.297	0.275	0.252	0.261	0.266	0.268	0.315	0.372	0.423	0.478	0.525	0.568	0.599	0.614	0.618	0.602	0.580	
1.000	1.000	1.000	1.000	1.000	0.999	0.996	0.996	0.992	0.986	0.980	0.976	0.968	0.955	0.936	0.916	0.889	0.894	0.902	0.914	0.924	0.930	0.935	0.929	0.916	0.893	0.865	0.828	0.818	0.817	0.806	0.789	0.764	0.731	0.693	0.683	0.686	0.686	0.677	0.662	0.635	0.602	0.561	0.513	0.460	0.432	0.404	0.364	0.320	0.278	0.246	0.225	0.227	0.278	0.336	0.397	0.454	0.508	0.560	0.605	0.638	0.658	0.661	0.648	0.625	
1.000	1.000	1.000	1.000	0.999	0.996	0.996	0.992	0.988	0.987	0.984	0.976	0.970	0.957	0.939	0.919	0.892	0.895	0.905	0.916	0.927	0.935	0.938	0.933	0.920	0.896	0.869	0.832	0.790	0.779	0.771	0.752	0.727	0.696	0.694	0.702	0.710	0.713	0.705	0.687	0.662	0.629	0.587	0.537	0.521	0.498	0.468	0.428	0.381	0.331	0.269	0.206	0.234	0.293	0.351	0.413	0.473	0.530	0.584	0.631	0.669	0.692	0.697	0.681	0.653	
1.000	1.000	1.000	1.000	0.996	0.996	0.995	0.992	0.988	0.988	0.984	0.977	0.970	0.957	0.939	0.920	0.903	0.894	0.904	0.915	0.925	0.933	0.936	0.930	0.916	0.892	0.864	0.829	0.788	0.743	0.729	0.715	0.687	0.689	0.708	0.721	0.726	0.731	0.724	0.706	0.682	0.646	0.608	0.600	0.586	0.563	0.529	0.492	0.438	0.384	0.324	0.256	0.240	0.299	0.359	0.418	0.484	0.539	0.594	0.641	0.680	0.706	0.709	0.693	0.669	
1.000	1.000	1.000	1.000	0.996	0.996	0.992	0.989	0.988	0.984	0.980	0.976	0.969	0.955	0.937	0.924	0.912	0.894	0.897	0.909	0.917	0.923	0.924	0.920	0.905	0.881	0.853	0.820	0.780	0.736	0.693	0.675	0.678	0.695	0.714	0.729	0.738	0.741	0.733	0.719	0.692	0.661	0.663	0.660	0.648	0.625	0.592	0.548	0.496	0.440	0.374	0.305	0.236	0.295	0.353	0.416	0.475	0.533	0.589	0.635	0.674	0.701	0.703	0.685	0.661	
1.000	1.000	1.000	1.000	0.996	0.996	0.992	0.988	0.988	0.984	0.979	0.973	0.965	0.950	0.941	0.931	0.918	0.902	0.889	0.895	0.903	0.907	0.907	0.901	0.885	0.866	0.838	0.807	0.768	0.723	0.675	0.659	0.679	0.697	0.713	0.728	0.739	0.741	0.737	0.719	0.696	0.710	0.723	0.723	0.711	0.684	0.651	0.605	0.551	0.487	0.420	0.347	0.272	0.283	0.342	0.403	0.461	0.517	0.569	0.613	0.650	0.671	0.678	0.659	0.637	
1.000	1.000	1.000	1.000	0.996	0.996	0.992	0.991	0.984	0.980	0.976	0.969	0.958	0.952	0.945	0.936	0.923	0.908	0.888	0.884	0.886	0.888	0.886	0.876	0.864	0.846	0.819	0.785	0.746	0.706	0.658	0.654	0.673	0.692	0.709	0.722	0.728	0.732	0.726	0.713	0.741	0.764	0.777	0.781	0.772	0.744	0.704	0.656	0.596	0.531	0.460	0.385	0.303	0.266	0.322	0.378	0.436	0.487	0.537	0.579	0.612	0.629	0.632	0.620	0.594	
1.000	1.000	1.000	1.000	1.000	0.996	0.996	0.992	0.988	0.980	0.972	0.962	0.957	0.953	0.945	0.937	0.924	0.910	0.889	0.866	0.869	0.868	0.863	0.854	0.840	0.822	0.793	0.763	0.727	0.685	0.637	0.646	0.662	0.680	0.697	0.708	0.717	0.716	0.711	0.746	0.782	0.812	0.832	0.838	0.828	0.798	0.754	0.699	0.635	0.568	0.494	0.415	0.332	0.249	0.295	0.347	0.401	0.450	0.493	0.533	0.561	0.577	0.578	0.563	0.543	
1.000	1.000	1.000	1.000	1.000	0.999	0.996	0.996	0.989	0.982	0.972	0.961	0.957	0.951	0.945	0.933	0.921	0.905	0.888	0.865	0.849	0.844	0.840	0.829	0.813	0.792	0.769	0.737	0.701	0.663	0.620	0.631	0.646	0.661	0.676	0.687	0.694	0.690	0.732	0.774	0.815	0.851	0.880	0.891	0.880	0.845	0.796	0.737	0.669	0.593	0.517	0.436	0.354	0.268	0.257	0.308	0.360	0.405	0.444	0.476	0.503	0.515	0.513	0.500	0.482	
1.000	1.000	1.000	1.000	1.000	1.000	0.999	0.996	0.992	0.984	0.975	0.961	0.953	0.947	0.940	0.929	0.917	0.900	0.880	0.859	0.829	0.822	0.817	0.805	0.790	0.774	0.751	0.725	0.691	0.654	0.610	0.614	0.626	0.642	0.652	0.660	0.666	0.707	0.748	0.791	0.837	0.882	0.915	0.931	0.918	0.879	0.823	0.759	0.688	0.612	0.532	0.451	0.365	0.275	0.219	0.264	0.307	0.349	0.383	0.415	0.435	0.443	0.443	0.432	0.412	
1.000	1.000	1.000	1.000	1.000	1.000	1.000	0.996	0.992	0.984	0.976	0.968	0.955	0.941	0.933	0.923	0.908	0.891	0.872	0.850	0.842	0.839	0.834	0.829	0.818	0.800	0.780	0.752	0.717	0.678	0.636	0.593	0.605	0.615	0.622	0.630	0.667	0.706	0.752	0.797	0.846	0.891	0.929	0.951	0.933	0.889	0.831	0.767	0.693	0.618	0.539	0.455	0.369	0.279	0.187	0.215	0.252	0.291	0.324	0.346	0.365	0.373	0.373	0.357	0.341	
1.000	1.000	1.000	1.000	1.000	1.000	1.000	0.996	0.992	0.987	0.980	0.973	0.961	0.944	0.925	0.913	0.898	0.881	0.861	0.857	0.858	0.861	0.857	0.853	0.842	0.825	0.804	0.776	0.742	0.703	0.657	0.609	0.575	0.585	0.592	0.625	0.665	0.704	0.747	0.791	0.837	0.879	0.916	0.932	0.918	0.877	0.822	0.758	0.686	0.611	0.532	0.451	0.367	0.277	0.183	0.157	0.194	0.228	0.255	0.275	0.293	0.295	0.293	0.280	0.265	
1.000	1.000	1.000	1.000	1.000	1.000	0.997	0.996	0.992	0.991	0.984	0.977	0.967	0.949	0.930	0.904	0.884	0.868	0.865	0.870	0.875	0.878	0.876	0.875	0.864	0.849	0.825	0.797	0.764	0.723	0.678	0.631	0.575	0.553	0.583	0.616	0.653	0.690	0.732	0.775	0.815	0.850	0.877	0.889	0.876	0.844	0.793	0.730	0.665	0.593	0.517	0.435	0.351	0.265	0.173	0.125	0.148	0.170	0.189	0.201	0.214	0.218	0.216	0.203	0.184	
1.000	1.000	1.000	1.000	1.000	1.000	0.996	0.996	0.995	0.992	0.988	0.981	0.970	0.954	0.933	0.909	0.880	0.868	0.874	0.880	0.886	0.894	0.895	0.893	0.883	0.867	0.845	0.815	0.780	0.738	0.692	0.643	0.589	0.542	0.571	0.603	0.635	0.673	0.709	0.746	0.780	0.809	0.829	0.836	0.824	0.795	0.753	0.699	0.637	0.567	0.491	0.413	0.331	0.244	0.184	0.191	0.188	0.187	0.199	0.209	0.208	0.200	0.184	0.163	0.139	
1.000	1.000	1.000	1.000	1.000	0.996	0.996	0.996	0.996	0.992	0.990	0.982	0.972	0.956	0.933	0.909	0.880	0.874	0.881	0.889	0.895	0.904	0.907	0.906	0.897	0.880	0.859	0.829	0.790	0.751	0.704	0.653	0.608	0.560	0.553	0.583	0.613	0.645	0.677	0.710	0.739	0.762	0.776	0.778	0.767	0.740	0.704	0.653	0.594	0.530	0.460	0.383	0.302	0.246	0.262	0.271	0.272	0.263	0.249	0.225	0.216	0.211	0.195	0.174	0.145	
1.000	1.000	1.000	1.000	0.996	0.996	0.996	0.996	0.996	0.992	0.988	0.981	0.970	0.954	0.933	0.908	0.893	0.877	0.884	0.894	0.902	0.910	0.916	0.915	0.907	0.890	0.866	0.834	0.798	0.755	0.708	0.668	0.626	0.579	0.532	0.558	0.585	0.615	0.643	0.669	0.692	0.709	0.721	0.719	0.708	0.684	0.648	0.602	0.547	0.485	0.421	0.346	0.297	0.324	0.339	0.351	0.355	0.347	0.332	0.307	0.274	0.233	0.195	0.174	0.147	
1.000	1.000	1.000	1.000	0.996	0.996	0.996	0.992	0.992	0.991	0.984	0.977	0.967	0.951	0.930	0.921	0.908	0.892	0.885	0.894	0.902	0.911	0.916	0.915	0.907	0.891	0.867	0.834	0.800	0.755	0.721	0.681	0.641	0.593	0.543	0.531	0.552	0.579	0.600	0.624	0.642	0.655	0.662	0.660	0.645	0.624	0.588	0.546	0.496	0.434	0.373	0.334	0.367	0.395	0.416	0.427	0.434	0.429	0.416	0.391	0.354	0.310	0.257	0.200	0.145	
1.000	1.000	1.000	1.000	0.996	0.996	0.993	0.992	0.990	0.987	0.980	0.973	0.962	0.946	0.938	0.929	0.919	0.907	0.889	0.888	0.897	0.905	0.908	0.907	0.898	0.881	0.860	0.828	0.792	0.761	0.729	0.694	0.652	0.602	0.551	0.518	0.526	0.540	0.560	0.576	0.591	0.599	0.600	0.596	0.581	0.559	0.527	0.489	0.439	0.382	0.352	0.394	0.429	0.462	0.489	0.508	0.517	0.514	0.499	0.473	0.434	0.388	0.331	0.266	0.208	
1.000	1.000	1.000	1.000	0.996	0.996	0.992	0.991	0.988	0.983	0.976	0.969	0.956	0.949	0.947	0.939	0.929	0.917	0.899	0.881	0.889	0.894	0.897	0.894	0.885	0.869	0.847	0.817	0.793	0.766	0.735	0.699	0.658	0.607	0.555	0.534	0.542	0.546	0.552	0.553	0.541	0.540	0.542	0.534	0.520	0.497	0.463	0.425	0.379	0.358	0.402	0.446	0.492	0.531	0.563	0.585	0.598	0.597	0.582	0.551	0.511	0.459	0.396	0.329	0.269	
1.000	1.000	1.000	0.999	0.996	0.994	0.992	0.988	0.984	0.979	0.973	0.961	0.957	0.953	0.950	0.945	0.936	0.923	0.907	0.886	0.875	0.880	0.880	0.875	0.867	0.849	0.828	0.811	0.790	0.767	0.733	0.698	0.658	0.606	0.561	0.547	0.551	0.557	0.562	0.561	0.556	0.543	0.524	0.495	0.459	0.430	0.415	0.415	0.408	0.397	0.450	0.501	0.546	0.591	0.632	0.662	0.676	0.678	0.664	0.630	0.585	0.527	0.459	0.387	0.322	
1.000	1.000	1.000	0.999	0.996	0.992	0.990	0.985	0.980	0.975	0.966	0.961	0.961	0.957	0.953	0.949	0.940	0.927	0.910	0.888	0.865	0.863	0.861	0.854	0.845	0.828	0.816	0.803	0.785	0.761	0.730	0.692	0.650	0.606	0.605	0.596	0.582	0.566	0.567	0.565	0.558	0.548	0.526	0.500	0.465	0.472	0.479	0.480	0.473	0.460	0.488	0.542	0.597	0.650	0.697	0.736	0.759	0.761	0.744	0.707	0.653	0.587	0.515	0.438	0.369	
1.000	1.000	1.000	0.996	0.996	0.992	0.988	0.984	0.977	0.971	0.965	0.962	0.959	0.957	0.953	0.949	0.939	0.925	0.910	0.888	0.863	0.842	0.837	0.833	0.820	0.811	0.804	0.791	0.771	0.750	0.718	0.681	0.648	0.647	0.648	0.639	0.629	0.613	0.589	0.563	0.557	0.544	0.522	0.497	0.514	0.531	0.541	0.543	0.540	0.525	0.520	0.579	0.641	0.701	0.756	0.805	0.838	0.844	0.822	0.776	0.714	0.641	0.561	0.478	0.404	
1.000	1.000	1.000	0.996	0.996	0.992	0.988	0.980	0.975	0.969	0.965	0.961	0.957	0.953	0.949	0.944	0.934	0.922	0.904	0.883	0.858	0.829	0.817	0.808	0.800	0.797	0.789	0.775	0.760	0.732	0.703	0.673	0.681	0.688	0.689	0.688	0.675	0.660	0.633	0.602	0.563	0.533	0.513	0.537	0.566	0.585	0.600	0.607	0.604	0.589	0.565	0.607	0.672	0.738	0.805	0.864	0.909	0.920	0.892	0.833	0.761	0.679	0.593	0.505	0.433	
1.000	1.000	1.000	0.997	0.996	0.992	0.984	0.979	0.973	0.969	0.962	0.957	0.953	0.949	0.943	0.935	0.925	0.913	0.896	0.875	0.850	0.820	0.790	0.787	0.784	0.778	0.770	0.756	0.738	0.714	0.686	0.700	0.714	0.723	0.729	0.727	0.721	0.705	0.680	0.645	0.603	0.556	0.547	0.580	0.611	0.638	0.657	0.667	0.667	0.652	0.626	0.622	0.691	0.762	0.834	0.904	0.968	0.984	0.942	0.872	0.791	0.703	0.615	0.523	0.447	
1.000	1.000	1.000	0.996	0.996	0.992	0.984	0.978	0.973	0.966	0.961	0.953	0.949	0.942	0.935	0.928	0.917	0.901	0.885	0.865	0.839	0.810	0.786	0.782	0.774	0.762	0.750	0.733	0.714	0.692	0.710	0.728	0.745	0.758	0.766	0.768	0.760	0.746	0.720	0.686	0.642	0.591	0.579	0.618	0.652	0.684	0.707	0.722	0.724	0.710	0.679	0.639	0.693	0.766	0.841	0.913	0.977	0.998	0.956	0.877	0.793	0.708	0.619	0.525	0.447	
1.000	1.000	1.000	0.998	0.996	0.992	0.984	0.976	0.971	0.965	0.957	0.949	0.942	0.935	0.925	0.916	0.903	0.888	0.871	0.852	0.825	0.807	0.806	0.804	0.797	0.786	0.772	0.751	0.726	0.711	0.731	0.750	0.770	0.786	0.798	0.804	0.799	0.782	0.757	0.720	0.675	0.622	0.607	0.646	0.687	0.724	0.751	0.771	0.774	0.762	0.729	0.685	0.680	0.751	0.818	0.882	0.931	0.947	0.911	0.852	0.773	0.689	0.602	0.515	0.437	
1.000	1.000	1.000	1.000	0.996	0.992	0.987	0.978	0.969	0.961	0.953	0.945	0.935	0.925	0.917	0.903	0.889	0.873	0.857	0.836	0.821	0.823	0.823	0.822	0.817	0.807	0.794	0.775	0.750	0.724	0.744	0.769	0.791	0.812	0.826	0.833	0.829	0.813	0.785	0.746	0.699	0.644	0.627	0.670	0.713	0.755	0.787	0.809	0.814	0.800	0.767	0.718	0.660	0.716	0.776	0.830	0.864	0.871	0.849	0.796	0.732	0.655	0.574	0.487	0.449	
1.000	1.000	1.000	1.000	0.996	0.992	0.988	0.980	0.970	0.957	0.948	0.937	0.927	0.917	0.904	0.890	0.874	0.859	0.840	0.826	0.831	0.834	0.835	0.835	0.834	0.826	0.813	0.792	0.769	0.736	0.755	0.782	0.804	0.827	0.843	0.852	0.850	0.835	0.804	0.766	0.717	0.661	0.637	0.682	0.727	0.772	0.809	0.834	0.837	0.825	0.787	0.735	0.674	0.670	0.723	0.763	0.788	0.792	0.772	0.731	0.677	0.608	0.534	0.501	0.498	
1.000	1.000	1.000	1.000	0.996	0.992	0.988	0.981	0.971	0.958	0.944	0.932	0.921	0.908	0.894	0.876	0.859	0.840	0.829	0.834	0.839	0.844	0.847	0.848	0.847	0.838	0.825	0.808	0.781	0.750	0.758	0.785	0.809	0.832	0.852	0.863	0.862	0.844	0.814	0.773	0.725	0.668	0.637	0.684	0.729	0.774	0.809	0.835	0.841	0.829	0.791	0.742	0.676	0.616	0.656	0.690	0.710	0.709	0.693	0.659	0.609	0.550	0.530	0.537	0.535	
1.000	1.000	1.000	1.000	0.996	0.992	0.988	0.982	0.973	0.960	0.943	0.925	0.913	0.898	0.881	0.863	0.842	0.829	0.831	0.838	0.844	0.849	0.855	0.855	0.855	0.848	0.834	0.816	0.790	0.758	0.758	0.783	0.806	0.829	0.848	0.859	0.855	0.839	0.809	0.768	0.719	0.687	0.663	0.674	0.721	0.760	0.795	0.819	0.825	0.810	0.775	0.725	0.665	0.596	0.588	0.614	0.626	0.627	0.612	0.583	0.537	0.534	0.556	0.564	0.561	
1.000	1.000	1.000	1.000	0.996	0.996	0.988	0.982	0.974	0.961	0.945	0.924	0.905	0.888	0.869	0.849	0.832	0.829	0.834	0.839	0.845	0.851	0.855	0.859	0.857	0.850	0.837	0.820	0.794	0.780	0.777	0.775	0.795	0.815	0.832	0.840	0.835	0.821	0.792	0.753	0.730	0.718	0.693	0.661	0.694	0.733	0.767	0.784	0.787	0.773	0.742	0.696	0.638	0.574	0.518	0.536	0.546	0.545	0.529	0.502	0.512	0.543	0.567	0.579	0.575	
1.000	1.000	1.000	1.000	0.996	0.996	0.990	0.984	0.975	0.962	0.943	0.924	0.898	0.876	0.857	0.837	0.830	0.830	0.833	0.838	0.844	0.848	0.855	0.856	0.855	0.847	0.835	0.816	0.810	0.818	0.820	0.815	0.800	0.795	0.808	0.813	0.809	0.792	0.767	0.755	0.751	0.741	0.714	0.678	0.664	0.696	0.722	0.736	0.738	0.725	0.697	0.655	0.600	0.537	0.469	0.458	0.465	0.463	0.446	0.466	0.507	0.538	0.563	0.568	0.567	
1.000	1.000	1.000	1.000	0.996	0.996	0.992	0.984	0.975	0.962	0.945	0.925	0.896	0.873	0.856	0.836	0.828	0.827	0.830	0.833	0.839	0.845	0.846	0.848	0.847	0.838	0.828	0.826	0.839	0.852	0.859	0.855	0.842	0.820	0.787	0.778	0.775	0.758	0.758	0.767	0.765	0.752	0.725	0.688	0.641	0.651	0.672	0.682	0.681	0.671	0.644	0.604	0.552	0.495	0.427	0.378	0.381	0.378	0.402	0.450	0.490	0.524	0.542	0.550	0.549	
1.000	1.000	1.000	1.000	0.996	0.996	0.992	0.984	0.975	0.961	0.945	0.925	0.899	0.875	0.857	0.840	0.825	0.823	0.824	0.827	0.831	0.835	0.835	0.836	0.835	0.827	0.831	0.850	0.871	0.886	0.897	0.896	0.882	0.856	0.822	0.778	0.733	0.740	0.756	0.766	0.765	0.750	0.724	0.687	0.641	0.602	0.617	0.625	0.624	0.611	0.584	0.548	0.500	0.445	0.381	0.311	0.300	0.328	0.377	0.424	0.462	0.491	0.512	0.516	0.567	
1.000	1.000	1.000	1.000	0.996	0.996	0.991	0.984	0.975	0.962	0.944	0.924	0.897	0.877	0.860	0.842	0.825	0.814	0.817	0.819	0.821	0.821	0.823	0.822	0.816	0.823	0.846	0.871	0.894	0.917	0.932	0.935	0.920	0.890	0.850	0.804	0.749	0.730	0.745	0.753	0.748	0.738	0.712	0.675	0.634	0.648	0.656	0.655	0.641	0.615	0.578	0.530	0.475	0.413	0.342	0.268	0.249	0.297	0.345	0.388	0.423	0.450	0.467	0.530	0.598	
1.000	1.000	1.000	1.000	0.996	0.994	0.988	0.983	0.973	0.961	0.944	0.924	0.895	0.880	0.862	0.843	0.823	0.806	0.806	0.807	0.807	0.807	0.808	0.805	0.810	0.833	0.857	0.884	0.912	0.940	0.964	0.969	0.950	0.916	0.871	0.820	0.765	0.712	0.724	0.733	0.727	0.715	0.691	0.659	0.684	0.708	0.720	0.721	0.707	0.679	0.640	0.586	0.526	0.459	0.388	0.309	0.231	0.261	0.304	0.343	0.375	0.402	0.466	0.545	0.614	
1.000	1.000	1.000	1.000	0.996	0.992	0.988	0.982	0.973	0.959	0.940	0.920	0.894	0.880	0.862	0.843	0.823	0.808	0.795	0.792	0.794	0.790	0.786	0.794	0.814	0.833	0.861	0.888	0.919	0.950	0.977	0.986	0.965	0.927	0.878	0.827	0.771	0.710	0.696	0.701	0.696	0.681	0.661	0.698	0.731	0.762	0.780	0.783	0.768	0.737	0.695	0.636	0.572	0.502	0.425	0.344	0.258	0.214	0.255	0.290	0.321	0.387	0.469	0.550	0.616	
1.000	1.000	1.000	1.000	0.996	0.992	0.988	0.980	0.972	0.958	0.940	0.920	0.896	0.875	0.860	0.840	0.822	0.804	0.786	0.777	0.775	0.772	0.776	0.793	0.813	0.833	0.858	0.884	0.914	0.942	0.968	0.975	0.953	0.920	0.874	0.823	0.768	0.706	0.663	0.664	0.657	0.647	0.690	0.732	0.774	0.811	0.831	0.838	0.825	0.789	0.740	0.679	0.609	0.534	0.453	0.373	0.284	0.195	0.203	0.235	0.299	0.378	0.456	0.532	0.602	
1.000	1.000	1.000	1.000	0.996	0.992	0.987	0.980	0.969	0.955	0.935	0.914	0.895	0.875	0.856	0.836	0.820	0.801	0.785	0.775	0.767	0.761	0.775	0.788	0.805	0.826	0.848	0.873	0.898	0.922	0.938	0.943	0.926	0.895	0.856	0.806	0.753	0.696	0.663	0.642	0.620	0.663	0.709	0.758	0.806	0.846	0.877	0.886	0.869	0.830	0.775	0.707	0.636	0.556	0.475	0.388	0.301	0.252	0.216	0.247	0.280	0.358	0.433	0.507	0.571	
1.000	1.000	1.000	0.998	0.996	0.992	0.986	0.976	0.967	0.952	0.931	0.914	0.897	0.880	0.865	0.848	0.833	0.818	0.805	0.789	0.772	0.761	0.765	0.779	0.796	0.812	0.833	0.855	0.875	0.893	0.902	0.903	0.890	0.863	0.826	0.782	0.730	0.706	0.696	0.675	0.646	0.673	0.720	0.771	0.823	0.869	0.904	0.915	0.896	0.852	0.792	0.724	0.648	0.569	0.486	0.399	0.354	0.305	0.253	0.288	0.314	0.333	0.398	0.471	0.525	
1.000	1.000	1.000	0.997	0.996	0.992	0.984	0.976	0.965	0.951	0.932	0.919	0.904	0.891	0.877	0.863	0.851	0.838	0.825	0.815	0.795	0.774	0.755	0.767	0.781	0.798	0.813	0.831	0.846	0.859	0.866	0.861	0.850	0.827	0.793	0.752	0.734	0.732	0.725	0.703	0.673	0.673	0.720	0.770	0.824	0.867	0.902	0.912	0.895	0.851	0.791	0.724	0.647	0.568	0.487	0.443	0.403	0.351	0.292	0.320	0.348	0.371	0.381	0.421	0.473	
1.000	1.000	1.000	0.996	0.996	0.990	0.984	0.975	0.962	0.947	0.936	0.925	0.913	0.900	0.889	0.878	0.869	0.858	0.848	0.837	0.820	0.800	0.777	0.754	0.766	0.776	0.791	0.803	0.817	0.824	0.825	0.820	0.807	0.785	0.754	0.747	0.753	0.754	0.745	0.725	0.693	0.663	0.709	0.757	0.802	0.843	0.875	0.882	0.866	0.826	0.773	0.703	0.634	0.557	0.525	0.490	0.448	0.393	0.332	0.345	0.375	0.399	0.414	0.416	0.414	
1.000	1.000	1.000	0.996	0.996	0.990	0.984	0.975	0.963	0.951	0.939	0.929	0.920	0.912	0.903	0.893	0.884	0.877	0.870	0.859	0.844	0.825	0.803	0.773	0.746	0.756	0.764	0.774	0.783	0.786	0.784	0.779	0.766	0.743	0.743	0.756	0.764	0.765	0.753	0.733	0.704	0.665	0.687	0.729	0.770	0.805	0.826	0.834	0.819	0.783	0.735	0.675	0.607	0.586	0.563	0.529	0.479	0.425	0.385	0.366	0.390	0.416	0.426	0.434	0.425	
1.000	1.000	1.000	0.996	0.996	0.992	0.984	0.976	0.965	0.953	0.943	0.934	0.926	0.920	0.914	0.907	0.902	0.895	0.889	0.881	0.866	0.847	0.825	0.797	0.766	0.732	0.738	0.744	0.747	0.747	0.744	0.736	0.721	0.725	0.740	0.756	0.764	0.766	0.756	0.735	0.706	0.667	0.657	0.694	0.727	0.754	0.774	0.775	0.761	0.732	0.688	0.633	0.625	0.616	0.589	0.553	0.506	0.474	0.469	0.454	0.425	0.420	0.431	0.439	0.433	
1.000	1.000	1.000	0.997	0.996	0.992	0.984	0.976	0.965	0.957	0.948	0.939	0.933	0.927	0.924	0.921	0.919	0.915	0.910	0.904	0.890	0.872	0.847	0.820	0.787	0.747	0.711	0.712	0.714	0.711	0.703	0.693	0.698	0.720	0.734	0.750	0.757	0.757	0.746	0.727	0.696	0.658	0.618	0.650	0.677	0.700	0.713	0.713	0.698	0.671	0.633	0.641	0.643	0.631	0.606	0.569	0.547	0.558	0.554	0.536	0.511	0.467	0.424	0.431	0.424	
1.000	1.000	1.000	0.996	0.996	0.992	0.985	0.977	0.967	0.958	0.949	0.944	0.937	0.934	0.933	0.933	0.933	0.933	0.931	0.925	0.911	0.892	0.868	0.838	0.805	0.767	0.724	0.679	0.675	0.672	0.666	0.669	0.689	0.704	0.722	0.735	0.739	0.737	0.728	0.708	0.679	0.642	0.593	0.603	0.625	0.643	0.651	0.646	0.633	0.610	0.626	0.643	0.643	0.633	0.608	0.599	0.626	0.639	0.639	0.621	0.588	0.544	0.487	0.422	0.406	
1.000	1.000	1.000	0.997	0.996	0.992	0.984	0.977	0.970	0.961	0.952	0.946	0.943	0.941	0.941	0.946	0.949	0.951	0.952	0.945	0.933	0.912	0.886	0.856	0.822	0.781	0.737	0.690	0.674	0.685	0.693	0.703	0.708	0.711	0.707	0.709	0.713	0.713	0.703	0.682	0.654	0.616	0.572	0.550	0.570	0.580	0.585	0.581	0.567	0.592	0.614	0.628	0.631	0.619	0.626	0.672	0.705	0.723	0.724	0.704	0.669	0.615	0.553	0.481	0.418	
1.000	1.000	1.000	0.996	0.996	0.992	0.985	0.980	0.973	0.965	0.955	0.949	0.947	0.947	0.949	0.954	0.961	0.970	0.972	0.966	0.951	0.928	0.900	0.868	0.832	0.791	0.748	0.700	0.698	0.712	0.726	0.737	0.747	0.752	0.751	0.740	0.723	0.697	0.669	0.649	0.621	0.584	0.541	0.496	0.512	0.520	0.521	0.514	0.541	0.572	0.593	0.604	0.608	0.624	0.682	0.735	0.780	0.805	0.810	0.787	0.742	0.681	0.611	0.531	0.463	
1.000	1.000	1.000	0.996	0.996	0.992	0.988	0.980	0.976	0.969	0.960	0.951	0.949	0.949	0.954	0.961	0.972	0.981	0.988	0.981	0.964	0.939	0.910	0.876	0.839	0.799	0.753	0.708	0.721	0.739	0.756	0.773	0.785	0.792	0.795	0.787	0.771	0.739	0.705	0.663	0.610	0.552	0.506	0.455	0.449	0.461	0.475	0.489	0.514	0.541	0.560	0.572	0.597	0.666	0.729	0.793	0.849	0.886	0.894	0.865	0.809	0.738	0.656	0.572	0.500	
1.000	1.000	1.000	0.997	0.996	0.992	0.988	0.984	0.978	0.973	0.965	0.956	0.950	0.949	0.954	0.963	0.975	0.986	0.996	0.988	0.969	0.943	0.912	0.879	0.843	0.801	0.757	0.722	0.741	0.760	0.781	0.802	0.819	0.833	0.836	0.828	0.812	0.783	0.742	0.697	0.643	0.582	0.519	0.453	0.479	0.505	0.526	0.540	0.548	0.547	0.536	0.552	0.623	0.689	0.763	0.835	0.907	0.964	0.978	0.933	0.858	0.775	0.691	0.599	0.524	
1.000	1.000	1.000	0.997	0.996	0.992	0.988	0.984	0.980	0.976	0.969	0.962	0.950	0.949	0.953	0.961	0.972	0.981	0.988	0.981	0.964	0.939	0.911	0.876	0.839	0.798	0.755	0.733	0.755	0.776	0.802	0.827	0.849	0.867	0.874	0.869	0.850	0.819	0.775	0.725	0.669	0.607	0.539	0.489	0.520	0.549	0.572	0.591	0.603	0.604	0.591	0.572	0.628	0.701	0.777	0.856	0.937	0.999	1.000	0.968	0.884	0.793	0.702	0.609	0.533	
1.000	1.000	1.000	0.999	0.996	0.992	0.990	0.987	0.984	0.979	0.973	0.967	0.957	0.945	0.949	0.954	0.961	0.968	0.971	0.965	0.950	0.928	0.900	0.869	0.832	0.792	0.747	0.743	0.767	0.791	0.820	0.847	0.871	0.893	0.904	0.900	0.880	0.844	0.800	0.747	0.687	0.624	0.557	0.519	0.551	0.587	0.615	0.634	0.648	0.653	0.644	0.619	0.625	0.697	0.772	0.847	0.924	0.991	0.998	0.952	0.872	0.784	0.697	0.605	0.529	
1.000	1.000	1.000	1.000	0.996	0.992	0.991	0.988	0.984	0.980	0.976	0.970	0.962	0.950	0.941	0.944	0.948	0.951	0.951	0.944	0.931	0.911	0.885	0.855	0.821	0.781	0.749	0.748	0.773	0.798	0.825	0.858	0.884	0.911	0.924	0.921	0.898	0.861	0.814	0.759	0.698	0.633	0.565	0.543	0.577	0.617	0.646	0.674	0.690	0.694	0.684	0.661	0.623	0.675	0.744	0.812	0.875	0.918	0.925	0.890	0.831	0.754	0.671	0.583	0.512	
1.000	1.000	1.000	1.000	0.996	0.993	0.992	0.988	0.984	0.984	0.980	0.973	0.965	0.955	0.938	0.933	0.932	0.932	0.931	0.925	0.910	0.890	0.868	0.839	0.804	0.775	0.763	0.747	0.775	0.798	0.826	0.857	0.884	0.911	0.925	0.921	0.898	0.861	0.815	0.759	0.700	0.632	0.566	0.557	0.599	0.636	0.672	0.700	0.718	0.725	0.717	0.693	0.653	0.641	0.702	0.759	0.806	0.836	0.840	0.817	0.769	0.705	0.630	0.548	0.476	
1.000	1.000	1.000	1.000	0.996	0.992	0.992	0.988	0.987	0.984	0.980	0.976	0.969	0.955	0.939	0.921	0.918	0.914	0.912	0.902	0.888	0.871	0.847	0.819	0.795	0.787	0.774	0.753	0.768	0.792	0.819	0.848	0.873	0.894	0.908	0.903	0.882	0.848	0.802	0.749	0.688	0.625	0.559	0.567	0.608	0.647	0.684	0.716	0.735	0.741	0.732	0.707	0.669	0.614	0.648	0.696	0.733	0.754	0.757	0.736	0.699	0.640	0.575	0.500	0.441	
1.000	1.000	1.000	1.000	0.996	0.993	0.992	0.988	0.985	0.984	0.980	0.975	0.967	0.955	0.939	0.919	0.908	0.899	0.890	0.880	0.867	0.848	0.825	0.808	0.802	0.792	0.777	0.760	0.755	0.779	0.805	0.830	0.852	0.868	0.875	0.870	0.853	0.820	0.778	0.727	0.673	0.609	0.542	0.568	0.609	0.646	0.684	0.715	0.735	0.741	0.734	0.707	0.669	0.616	0.588	0.625	0.656	0.673	0.671	0.652	0.619	0.573	0.510	0.463	0.461	
1.000	1.000	1.000	1.000	0.996	0.993	0.992	0.988	0.984	0.980	0.980	0.973	0.965	0.953	0.935	0.927	0.925	0.917	0.908	0.894	0.875	0.853	0.825	0.808	0.803	0.792	0.780	0.760	0.741	0.763	0.783	0.806	0.823	0.837	0.840	0.834	0.814	0.785	0.747	0.700	0.645	0.586	0.525	0.561	0.601	0.639	0.675	0.700	0.721	0.728	0.717	0.695	0.655	0.605	0.545	0.555	0.576	0.589	0.584	0.570	0.540	0.498	0.457	0.469	0.467	
1.000	1.000	1.000	1.000	0.996	0.992	0.992	0.988	0.984	0.980	0.976	0.969	0.961	0.948	0.943	0.941	0.939	0.934	0.926	0.913	0.895	0.869	0.841	0.808	0.798	0.787	0.776	0.757	0.731	0.740	0.757	0.775	0.786	0.797	0.799	0.790	0.773	0.746	0.709	0.664	0.615	0.554	0.505	0.544	0.582	0.617	0.650	0.677	0.694	0.698	0.688	0.666	0.628	0.578	0.523	0.487	0.511	0.524	0.526	0.518	0.496	0.460	0.453	0.466	0.461	
1.000	1.000	1.000	1.000	0.996	0.992	0.988	0.986	0.983	0.976	0.973	0.965	0.954	0.949	0.950	0.953	0.952	0.949	0.943	0.928	0.910	0.883	0.853	0.821	0.793	0.783	0.767	0.748	0.724	0.714	0.729	0.741	0.751	0.756	0.755	0.745	0.726	0.701	0.666	0.625	0.575	0.521	0.484	0.522	0.557	0.589	0.618	0.641	0.655	0.660	0.649	0.623	0.589	0.538	0.517	0.557	0.586	0.606	0.612	0.603	0.579	0.539	0.492	0.442	0.441	
1.000	1.000	1.000	1.000	0.996	0.992	0.988	0.984	0.980	0.975	0.968	0.958	0.956	0.955	0.957	0.961	0.965	0.962	0.956	0.940	0.921	0.895	0.865	0.829	0.791	0.770	0.754	0.734	0.712	0.685	0.697	0.707	0.713	0.714	0.710	0.699	0.679	0.655	0.622	0.580	0.533	0.481	0.460	0.492	0.525	0.553	0.578	0.596	0.610	0.610	0.600	0.576	0.543	0.528	0.578	0.625	0.662	0.685	0.696	0.687	0.660	0.617	0.561	0.496	0.435	
1.000	1.000	1.000	0.998	0.996	0.992	0.989	0.985	0.980	0.975	0.967	0.957	0.957	0.957	0.961	0.967	0.972	0.971	0.964	0.948	0.927	0.900	0.870	0.833	0.795	0.756	0.741	0.718	0.693	0.662	0.665	0.671	0.672	0.671	0.663	0.652	0.632	0.607	0.573	0.534	0.489	0.435	0.428	0.458	0.484	0.510	0.531	0.546	0.556	0.553	0.542	0.521	0.514	0.577	0.636	0.686	0.733	0.766	0.779	0.772	0.737	0.689	0.625	0.552	0.488	
1.000	1.000	1.000	0.998	0.996	0.993	0.992	0.988	0.984	0.980	0.973	0.964	0.957	0.957	0.961	0.968	0.971	0.973	0.964	0.950	0.927	0.900	0.870	0.834	0.795	0.753	0.731	0.707	0.681	0.648	0.626	0.629	0.631	0.627	0.617	0.602	0.583	0.558	0.526	0.486	0.441	0.393	0.391	0.420	0.440	0.462	0.480	0.492	0.498	0.493	0.483	0.487	0.552	0.617	0.682	0.744	0.799	0.843	0.863	0.854	0.813	0.752	0.678	0.598	0.531	
1.000	1.000	1.000	1.000	0.996	0.996	0.992	0.989	0.987	0.984	0.977	0.969	0.957	0.957	0.957	0.963	0.965	0.964	0.957	0.942	0.922	0.896	0.866	0.829	0.793	0.775	0.760	0.735	0.708	0.675	0.638	0.596	0.587	0.580	0.571	0.555	0.532	0.508	0.479	0.450	0.414	0.374	0.351	0.375	0.395	0.413	0.426	0.436	0.438	0.434	0.442	0.510	0.575	0.644	0.714	0.785	0.851	0.915	0.945	0.930	0.876	0.802	0.720	0.635	0.563	
1.000	1.000	1.000	1.000	0.996	0.996	0.992	0.992	0.988	0.988	0.980	0.975	0.963	0.951	0.953	0.953	0.955	0.953	0.945	0.931	0.912	0.888	0.857	0.824	0.808	0.800	0.782	0.761	0.731	0.698	0.661	0.616	0.571	0.567	0.565	0.557	0.543	0.525	0.498	0.473	0.439	0.396	0.343	0.359	0.390	0.412	0.435	0.455	0.467	0.476	0.469	0.516	0.586	0.657	0.735	0.806	0.886	0.959	0.998	0.984	0.914	0.831	0.739	0.649	0.576	
